ncols        634
nrows        32
xllcorner    482192
yllcorner    6748240
cellsize     2.000000000000
NODATA_value -9999
963 963 963 963 963 963 963 963 964 964 964 964 964 964 964 964 964 964 964 964 964 964 964 964 964 964 963 963 964 964 964 964 964 965 965 965 964 964 965 965 965 964 964 965 965 965 964 964 963 963 963 963 963 964 964 964 964 964 964 964 964 963 963 963 963 963 962 962 963 963 963 963 963 964 964 964 963 963 963 963 963 963 963 964 964 964 964 964 965 965 965 964 964 965 965 965 964 964 965 965 965 964 964 964 966 966 966 968 968 968 968 967 970 969 969 969 969 969 967 968 968 968 969 968 968 968 968 969 968 968 968 969 969 969 969 969 969 969 968 968 968 969 969 969 969 969 969 970 969 969 969 970 969 969 969 969 969 969 968 968 968 970 971 971 971 971 971 972 971 971 971 973 973 972 972 972 972 972 972 972 974 974 974 974 974 974 974 974 975 975 975 974 974 975 975 975 975 975 976 976 976 975 975 977 977 977 979 981 980 980 980 980 981 981 981 981 981 982 981 981 981 981 982 981 981 981 981 982 981 981 981 982 982 981 981 981 983 983 982 982 982 983 983 982 982 982 983 983 982 982 982 983 983 983 983 983 984 984 983 983 983 984 984 983 983 983 983 983 982 982 982 983 983 982 982 982 982 980 980 980 980 981 979 979 978 978 981 979 979 979 979 980 980 980 980 980 980 981 981 981 981 982 982 981 981 981 982 982 982 982 982 982 981 981 981 981 981 979 979 979 979 979 976 976 976 977 977 975 975 975 975 975 974 975 975 975 974 974 974 974 974 973 973 973 973 973 973 973 973 972 972 973 973 972 972 972 972 971 971 971 971 971 969 969 969 969 969 967 967 967 967 967 967 967 967 967 967 967 966 966 966 965 964 964 964 964 962 962 963 963 963 963 963 964 964 964 963 964 964 964 963 963 963 963 962 962 962 962 962 962 962 962 962 962 962 963 963 963 963 963 963 962 962 963 963 963 963 964 964 964 963 963 963 963 962 962 962 963 963 963 963 962 962 961 961 961 961 961 961 961 961 961 961 960 960 960 961 960 960 960 960 960 960 959 959 959 959 959 958 958 958 959 958 958 958 957 957 956 956 956 956 956 956 956 956 956 955 956 956 956 956 955 955 955 955 955 955 955 955 955 955 954 954 954 954 954 953 953 953 953 952 952 952 952 952 952 952 951 950 950 950 950 950 950 950 950 950 949 949 949 949 949 948 948 948 948 948 947 947 947 947 947 946 946 946 946 946 945 945 945 945 945 944 944 944 944 943 943 943 943 942 942 942 942 942 942 942 942 941 941 941 941 941 940 940 940 940 940 939 939 939 940 939 938 938 938 939 938 938 938 938 938 937 937 937 937 937 936 936 936 936 937 935 935 935 935 936 935 934 934 934 934 933 933 933 933 932 932 932 932 932 932 932 931 931 931 931 931 930 930 930 930 930 929
963 963 963 963 963 963 963 963 964 964 964 964 964 964 964 964 964 964 964 964 964 964 964 964 964 964 963 963 964 964 964 964 964 965 965 965 964 964 965 965 965 964 964 965 965 965 964 964 963 963 963 963 963 964 964 964 964 964 964 964 964 963 963 963 963 963 962 962 963 963 963 963 963 964 964 964 963 963 963 963 963 963 963 964 964 964 964 964 965 965 965 964 964 965 965 965 964 964 965 965 965 964 964 964 964 964 965 966 967 967 967 967 967 967 968 968 967 966 966 967 967 966 966 967 967 967 966 966 967 967 967 966 967 968 968 968 967 967 967 967 967 967 967 967 967 967 967 967 968 968 968 967 967 967 967 967 967 966 967 967 967 968 969 969 969 969 969 969 970 970 970 970 969 970 970 970 970 972 972 972 974 974 974 974 974 974 974 974 974 975 975 974 974 975 975 975 975 975 976 976 976 975 975 977 977 977 975 975 977 978 978 977 977 978 979 979 978 978 979 979 979 978 978 979 979 979 978 978 978 978 978 978 978 979 979 979 979 979 980 980 980 979 979 980 980 980 979 980 980 980 980 979 979 981 981 981 979 979 981 981 981 984 984 980 980 980 979 978 980 980 980 978 979 979 979 979 978 978 978 978 978 977 977 978 978 976 976 976 977 977 977 976 977 978 978 978 978 978 979 979 979 978 978 979 979 979 978 980 980 980 980 978 979 979 979 979 977 977 977 977 976 976 975 976 976 976 975 974 975 975 975 974 974 975 975 975 974 974 974 974 973 973 973 973 973 973 973 973 973 972 972 972 973 971 971 971 970 969 969 969 969 969 968 968 968 968 967 966 966 966 966 966 965 966 966 966 965 964 965 965 965 964 964 964 964 964 962 962 963 963 963 963 963 964 964 963 963 963 964 964 963 963 963 963 962 962 962 962 962 962 962 962 962 962 962 963 963 963 963 963 963 962 962 963 963 963 963 963 964 964 963 963 963 963 962 962 962 963 963 963 963 963 961 961 961 961 961 960 960 960 960 960 959 959 959 959 958 958 959 959 959 958 958 958 958 958 958 957 957 957 957 957 957 957 957 957 956 956 956 956 956 956 956 956 956 955 955 955 956 956 955 955 955 955 955 955 955 955 955 955 955 954 954 954 954 954 953 953 953 952 952 952 952 952 952 951 951 950 950 950 950 950 949 949 949 949 949 948 948 948 948 948 947 947 947 947 947 946 946 946 946 946 945 945 945 945 945 945 945 945 945 944 944 944 944 944 943 943 943 942 942 942 942 942 942 942 942 941 941 941 940 940 939 939 940 940 940 938 938 938 938 938 937 937 937 937 937 937 937 937 937 936 936 936 936 936 936 935 935 935 935 935 935 935 935 935 934 934 934 934 934 933 933 933 933 932 932 932 932 932 932 932 932 931 931 931 931 930 930 930 930 930 929 929
963 963 963 963 963 963 963 963 963 964 964 964 964 964 964 964 964 964 964 964 964 964 964 964 964 963 963 963 963 964 964 964 964 964 965 964 964 964 964 965 964 964 964 964 965 964 964 964 964 963 963 963 963 963 964 964 964 964 964 964 963 963 963 963 963 962 962 962 962 963 963 963 963 963 964 963 963 963 963 963 963 963 963 963 964 964 964 964 964 965 964 964 964 965 965 964 964 964 965 965 964 964 964 964 964 965 965 966 966 967 967 967 967 967 967 967 967 966 966 967 966 966 966 966 967 966 966 966 966 967 966 966 967 967 968 967 967 967 967 967 967 967 967 967 967 967 967 967 968 968 967 967 967 967 967 967 967 966 966 967 968 968 969 969 969 969 969 969 969 970 970 969 969 969 970 970 970 971 971 971 970 971 974 974 974 974 974 974 974 975 974 974 974 974 975 975 975 975 975 976 975 975 975 977 977 975 975 975 977 977 977 977 977 978 979 978 978 978 978 979 978 978 978 978 979 978 978 978 978 978 978 978 978 978 979 979 979 979 979 980 979 979 979 979 980 979 979 979 980 980 980 979 979 979 981 979 979 979 981 981 979 979 979 980 980 979 979 978 980 980 978 978 978 979 979 978 978 978 978 978 977 977 977 977 978 976 976 976 976 977 976 976 977 977 978 978 978 978 978 979 978 978 978 978 979 978 978 978 980 980 978 978 978 979 979 977 977 977 977 977 976 976 975 975 975 975 975 974 974 975 975 974 974 974 975 974 974 974 974 974 973 973 973 973 973 973 973 973 970 971 971 971 970 971 971 970 970 969 969 969 969 969 968 968 968 967 967 966 966 966 966 966 965 965 966 965 965 964 964 965 965 964 964 964 964 964 962 962 962 963 963 963 963 964 964 963 963 963 964 964 963 963 963 963 961 961 961 961 962 962 962 961 961 961 961 963 963 963 963 963 963 962 962 962 963 963 963 963 964 964 963 963 963 963 961 961 961 960 961 961 961 960 960 961 961 961 960 960 960 960 960 960 959 959 959 958 958 958 958 959 958 958 958 958 958 958 958 957 957 957 957 957 957 957 957 956 956 956 956 956 956 956 956 956 955 955 955 955 955 955 955 955 955 955 955 955 955 955 955 955 955 954 954 954 954 954 953 953 953 952 952 952 952 951 951 951 950 950 950 950 950 950 949 949 949 949 949 948 948 948 948 948 947 947 947 947 947 946 946 946 946 946 946 945 945 945 945 945 945 945 944 944 944 944 944 943 943 943 943 942 942 942 941 941 941 941 940 940 940 940 940 939 939 939 939 939 939 938 938 938 938 938 937 937 937 937 937 937 937 937 936 936 936 936 936 936 936 935 935 935 935 935 934 935 935 934 934 933 934 934 934 933 933 933 933 932 932 932 932 932 932 931 931 931 931 931 930 930 930 930 930 929 929 929
963 963 963 962 961 963 963 962 962 964 964 964 963 963 962 963 963 963 963 962 962 962 962 962 962 962 962 962 962 962 962 962 962 962 962 962 962 962 962 961 962 962 962 962 962 962 962 962 962 960 961 961 961 961 961 962 962 962 962 961 961 961 961 961 960 961 961 961 961 960 961 961 961 961 960 961 961 961 961 961 962 962 962 962 961 962 962 962 962 962 963 963 963 963 962 963 963 963 964 965 964 964 964 964 965 965 965 966 966 965 965 967 967 967 966 966 967 966 966 965 965 966 966 966 966 966 966 966 966 966 966 966 967 967 966 967 967 967 967 966 967 967 967 967 967 967 967 967 967 966 967 967 967 967 966 967 967 966 966 966 968 968 969 969 969 969 969 969 969 969 969 969 969 969 969 970 970 971 971 970 970 971 971 971 970 970 972 972 972 971 971 972 972 972 972 973 973 973 973 972 973 973 973 975 975 975 975 975 977 976 976 977 978 978 977 977 978 978 978 977 978 978 978 978 977 978 978 978 978 977 978 978 978 978 977 979 979 979 979 978 979 979 979 979 978 979 979 979 979 980 979 979 979 979 978 979 979 979 979 979 979 979 979 979 978 979 979 978 978 978 978 978 978 978 977 978 978 978 978 977 977 977 977 977 976 976 976 976 976 975 976 976 977 977 977 978 978 978 978 978 978 978 978 978 977 978 978 978 978 977 978 978 978 978 976 977 977 977 977 975 976 976 975 975 975 975 975 974 974 974 975 974 974 973 972 972 972 972 972 971 972 972 972 970 970 971 971 971 970 971 971 971 970 970 970 970 970 969 969 969 969 969 968 968 967 967 967 966 966 966 966 966 965 965 965 965 965 964 964 964 965 964 964 964 961 961 961 961 961 960 962 962 962 962 961 962 962 962 961 961 962 962 962 961 961 961 961 961 961 962 961 961 961 961 961 961 961 961 961 960 961 961 961 961 961 961 961 961 961 961 961 961 961 961 961 961 961 960 960 961 960 960 960 960 961 960 960 960 960 960 960 960 959 959 958 958 958 958 958 957 958 958 958 958 957 958 958 957 957 956 957 957 957 957 956 956 956 956 956 955 956 956 956 955 955 955 955 955 955 955 955 955 955 955 955 955 955 955 954 954 955 954 954 954 954 954 953 953 953 952 952 952 951 951 951 950 950 950 950 950 950 950 949 949 949 949 949 948 948 948 948 948 947 947 947 947 947 946 946 946 946 946 946 946 945 945 945 945 944 944 944 944 944 944 944 943 943 942 942 941 941 941 941 941 941 940 940 940 940 940 939 939 939 939 939 939 939 938 938 938 938 938 937 937 937 937 937 937 937 936 936 936 936 936 936 936 936 935 935 935 935 935 934 934 934 934 934 933 933 934 934 933 933 933 933 932 932 932 931 931 931 931 931 931 931 930 930 930 930 930 929 929 929 929
962 962 962 962 961 961 962 962 962 962 963 963 963 963 962 963 963 963 963 962 962 962 962 962 962 962 962 962 962 962 962 962 962 962 962 962 962 962 961 961 962 962 962 962 962 962 962 962 960 960 960 961 961 961 961 962 962 962 961 961 961 961 961 960 960 960 961 961 960 960 960 961 961 960 960 960 961 961 961 961 961 962 962 961 961 961 962 962 962 962 963 963 963 962 962 963 963 963 962 962 963 963 963 962 964 964 964 964 965 965 965 965 967 966 966 966 966 966 965 965 965 965 966 966 966 966 966 966 966 966 966 966 967 966 966 966 967 967 966 966 966 967 967 966 966 967 967 967 966 966 966 967 967 967 966 966 967 966 966 966 966 968 969 969 968 968 969 969 969 968 968 969 969 969 969 969 970 971 971 970 970 970 971 971 970 970 972 972 971 971 971 972 972 972 972 972 973 973 972 972 973 973 973 973 974 974 974 974 977 976 976 976 978 977 977 977 978 978 977 977 977 978 978 977 977 977 978 978 977 977 977 978 978 977 977 977 979 979 978 978 978 979 979 978 978 979 979 979 979 978 978 979 979 978 978 978 979 979 979 979 979 979 979 978 978 978 979 978 978 978 978 978 978 977 977 977 978 978 977 977 977 977 977 976 976 976 976 976 975 975 975 976 977 977 977 977 978 978 978 978 978 978 978 977 977 978 978 978 977 977 978 978 978 976 976 976 977 977 975 975 975 976 975 975 975 975 973 973 973 973 973 973 973 973 972 972 972 972 971 971 972 972 972 970 970 971 971 970 970 970 971 971 970 969 969 970 970 969 968 968 968 969 968 967 967 967 967 966 966 966 966 966 965 965 965 965 965 964 963 963 962 962 962 962 961 961 961 961 961 960 960 962 962 961 961 962 962 962 961 961 962 962 962 961 961 961 961 961 961 960 961 961 961 961 961 961 961 961 961 960 960 961 961 961 961 961 961 961 961 961 961 961 961 961 961 961 961 960 960 960 960 960 960 960 959 960 960 960 959 959 960 960 959 958 958 958 958 958 957 957 958 958 958 957 957 957 958 957 956 956 956 957 957 956 956 956 956 956 955 955 955 956 955 955 955 955 955 955 955 955 955 955 955 955 955 955 955 954 954 954 954 954 954 954 954 953 953 953 953 952 952 952 951 951 951 950 950 950 950 950 950 950 949 949 949 949 949 948 948 948 948 948 947 947 947 947 947 946 946 946 946 946 946 945 945 945 945 944 944 944 944 944 944 943 943 942 942 942 941 941 941 941 941 941 940 940 940 940 940 939 939 939 939 939 938 939 939 938 938 937 938 938 937 937 937 937 937 937 936 936 936 936 936 935 935 936 936 935 935 935 935 935 934 934 934 934 934 933 933 933 933 932 932 932 932 932 932 932 931 931 931 931 931 931 930 930 930 930 930 929 929 929 929 929
962 962 962 961 961 961 962 962 962 962 962 963 963 962 962 962 963 963 962 962 962 962 962 962 962 962 962 962 962 962 962 962 962 962 962 962 962 962 961 961 961 962 962 962 962 962 962 962 960 960 960 961 961 961 961 961 962 962 961 961 961 961 961 960 960 960 961 961 960 960 960 961 961 960 960 960 961 961 961 961 961 962 962 961 961 961 962 962 962 962 962 963 963 962 962 962 963 963 962 962 963 963 962 962 962 964 964 963 963 964 964 964 964 964 964 964 964 964 964 964 964 964 964 965 965 965 964 964 965 965 965 964 964 965 965 965 964 964 964 964 964 964 965 966 966 966 967 966 966 966 966 967 967 966 966 966 966 964 966 966 966 966 969 968 968 967 967 966 968 967 967 967 966 969 967 967 967 967 968 968 968 970 971 970 970 970 970 972 971 971 971 972 972 972 972 972 973 973 972 972 972 973 973 973 973 974 974 973 973 974 974 974 973 975 975 975 975 974 975 975 975 974 974 975 975 975 974 974 975 975 975 974 974 976 976 976 975 976 976 976 976 976 978 978 978 978 979 979 978 978 978 976 976 978 977 977 976 976 979 977 977 976 976 976 976 976 975 975 976 976 976 975 976 976 976 976 975 976 976 976 976 975 975 975 975 975 974 973 974 974 974 974 974 975 975 975 975 975 976 976 976 975 975 975 977 977 978 975 975 975 975 974 974 975 975 975 974 974 974 974 974 974 974 974 974 974 973 973 973 973 973 973 973 973 972 972 972 972 971 971 971 972 970 970 970 970 971 970 970 970 970 971 969 969 969 969 970 967 967 967 967 966 966 966 966 966 965 965 965 965 965 964 964 964 964 964 963 963 963 963 962 962 962 962 961 961 961 961 960 960 960 962 962 961 961 961 962 962 961 961 961 962 961 961 961 961 961 961 960 960 960 961 961 961 961 961 961 961 960 960 960 961 961 961 961 961 961 961 961 961 961 961 961 961 961 961 961 960 960 960 960 960 960 959 959 959 960 960 959 959 959 960 958 958 958 958 958 956 957 957 957 958 958 957 957 957 957 955 956 956 956 956 955 955 955 955 954 954 955 955 955 954 954 954 954 954 953 953 954 954 954 953 954 954 954 954 954 954 954 954 954 954 954 954 954 953 953 953 953 952 952 952 951 951 951 951 950 950 950 950 950 950 949 949 949 949 949 948 948 948 948 948 947 947 947 947 947 946 946 946 946 946 945 945 945 945 943 943 943 943 943 943 943 943 942 942 942 942 941 941 941 941 941 940 940 940 940 940 939 939 939 939 939 938 938 938 939 938 937 937 937 938 937 937 937 937 937 936 936 936 936 936 935 935 935 935 936 935 935 935 935 935 934 934 934 934 933 933 933 933 932 932 932 932 932 932 932 932 931 931 931 931 931 930 930 930 930 930 929 929 929 929 929 929
962 962 962 961 961 961 962 962 962 962 962 963 963 962 962 962 963 963 962 962 962 962 962 962 962 962 962 962 962 962 962 962 962 962 962 962 962 962 961 961 961 962 962 962 962 962 962 962 960 960 960 961 961 961 961 961 962 962 961 961 961 961 961 959 959 959 961 959 959 959 959 961 958 958 958 958 958 961 961 961 961 962 962 961 961 961 962 962 962 962 962 963 962 962 962 962 963 962 962 962 962 963 962 962 962 964 964 963 963 964 964 964 964 964 964 964 964 964 964 964 964 964 964 965 965 965 964 964 965 965 965 964 964 965 965 965 964 964 964 964 964 964 965 965 965 965 964 965 965 965 965 964 964 965 965 965 964 964 965 965 965 965 966 966 967 967 966 966 966 967 967 966 966 966 967 967 967 967 967 968 968 967 967 967 968 968 967 968 969 969 969 968 968 969 969 969 968 969 970 970 970 970 973 973 973 974 973 973 973 974 974 973 973 973 975 975 974 974 974 975 975 974 974 975 975 975 974 974 975 975 975 974 974 976 976 976 975 975 976 976 976 976 976 977 977 977 976 976 977 977 977 976 976 976 977 977 976 976 976 977 976 976 976 976 976 975 975 975 976 976 975 975 975 976 976 975 975 975 976 976 975 975 975 975 975 974 974 973 974 974 974 974 974 975 975 975 975 975 976 976 976 975 975 975 975 974 974 975 975 975 974 974 974 975 975 974 974 974 974 974 974 974 974 974 974 973 973 973 973 973 973 973 973 972 972 972 972 970 970 970 970 969 969 969 969 969 968 969 969 969 969 968 968 968 968 968 967 966 967 967 966 966 966 966 966 965 965 965 965 965 964 964 964 964 964 964 963 963 963 963 962 962 962 960 960 961 961 961 959 959 959 959 959 959 959 959 962 960 960 960 960 959 959 959 959 959 959 959 959 959 959 959 959 959 959 959 959 959 959 959 959 959 960 960 960 960 959 959 959 959 959 958 960 960 960 960 959 958 959 959 959 958 957 958 958 958 957 957 957 957 957 957 956 957 957 957 956 956 956 956 956 955 955 956 956 956 955 955 956 956 956 955 955 955 955 955 954 954 955 955 955 954 954 954 954 954 953 953 954 954 954 953 953 954 954 954 954 954 954 954 954 954 954 954 953 953 953 953 952 952 952 952 952 951 951 951 951 950 950 950 950 950 949 949 949 949 948 947 947 947 947 947 946 946 946 946 946 945 945 945 945 944 944 944 944 944 943 943 943 943 942 942 943 943 942 942 942 942 941 941 940 940 939 939 940 940 940 938 938 938 938 938 937 937 937 937 937 937 937 937 937 937 936 936 936 936 936 936 936 936 936 935 935 935 935 935 935 934 934 934 934 933 933 933 933 933 933 933 933 933 932 932 932 932 932 932 932 931 931 931 931 931 930 930 930 930 930 929 929 929 929 929 928 928
961 961 961 961 961 961 961 961 961 961 961 961 961 961 961 961 961 961 961 961 961 961 960 961 961 961 960 960 960 960 960 960 959 960 960 960 959 959 960 960 960 960 960 960 960 960 959 959 959 959 959 958 958 959 959 959 958 958 959 959 959 958 958 959 959 959 958 958 959 959 959 958 958 958 958 958 958 958 959 959 959 959 960 960 960 960 960 960 961 961 961 960 960 961 961 961 961 960 961 961 960 960 961 961 961 964 963 963 963 964 964 964 964 964 964 964 964 964 964 964 964 964 964 964 965 964 964 964 964 965 964 964 964 965 965 964 964 964 964 964 964 964 964 965 965 964 964 965 965 965 964 964 964 964 965 965 964 964 964 965 965 965 965 966 966 966 966 966 966 966 966 966 966 966 966 967 967 967 967 967 967 967 967 967 967 967 967 968 968 969 968 968 968 968 969 968 968 969 969 970 970 970 971 971 971 969 970 970 970 974 974 973 973 973 975 975 974 974 974 975 975 974 974 974 975 974 974 974 974 975 974 974 974 974 976 975 975 975 976 976 976 976 976 977 977 976 976 976 976 976 976 976 976 976 976 976 976 976 976 975 976 976 976 976 975 975 975 975 975 975 975 975 975 975 975 975 975 975 975 975 975 975 975 975 974 974 974 973 973 974 974 974 974 974 975 975 975 975 976 976 975 975 975 975 975 974 974 975 975 974 974 974 974 974 974 974 974 974 974 974 974 974 974 974 974 973 973 973 973 972 972 972 971 971 971 971 971 970 970 970 969 969 968 969 969 968 968 968 969 969 968 968 968 968 968 967 967 966 966 966 966 966 966 966 965 965 965 965 965 964 964 964 964 964 964 963 963 963 963 962 961 961 961 960 960 960 959 959 959 959 959 958 959 959 959 959 959 959 960 960 959 959 959 959 959 959 959 959 959 959 959 959 959 959 959 959 959 959 959 959 959 959 959 960 960 959 959 959 959 959 958 958 959 960 960 959 959 958 958 959 958 958 957 957 958 957 957 957 957 957 957 957 956 956 957 956 956 956 956 956 955 955 955 955 956 956 955 955 955 956 956 955 955 955 955 954 954 954 954 955 954 954 954 954 954 953 953 953 954 954 953 953 953 954 954 954 954 954 954 954 954 954 954 954 953 953 953 953 952 952 952 952 952 952 951 951 951 950 950 950 950 950 949 949 949 948 948 948 947 947 947 947 946 946 946 946 946 945 945 945 944 944 944 944 944 944 943 943 943 943 942 942 942 943 942 941 941 940 940 940 940 940 939 939 939 939 938 938 938 938 938 937 937 937 937 937 937 936 937 937 937 936 936 936 936 936 936 936 936 936 935 935 935 935 935 935 935 934 934 934 934 933 933 933 933 933 933 933 933 933 932 932 932 931 931 931 931 931 931 931 931 930 930 930 930 930 929 929 929 929 929 929 928 928
961 961 961 961 961 961 961 961 961 961 961 961 961 961 961 961 961 961 961 961 961 961 960 960 961 960 960 960 960 960 960 960 959 959 960 959 959 959 959 960 960 960 960 960 960 959 959 959 959 959 958 958 958 958 959 958 958 958 958 959 958 958 958 958 959 958 958 958 958 959 958 958 958 958 958 958 958 958 958 959 959 959 960 960 960 960 960 960 960 961 960 960 960 960 961 961 961 960 960 961 960 960 961 961 961 961 961 961 961 961 961 962 962 962 961 962 962 962 962 961 962 962 962 962 962 963 963 963 963 963 963 963 963 964 963 963 963 963 964 962 964 964 964 965 964 964 964 965 965 964 964 964 964 964 964 965 964 964 964 965 965 965 965 966 966 966 966 966 966 965 965 966 966 966 966 966 967 967 967 967 967 967 967 967 966 966 967 968 968 966 968 968 968 968 967 968 968 969 969 968 970 970 971 971 969 969 970 970 970 970 970 971 971 971 971 971 972 972 972 971 971 973 973 973 972 973 973 973 973 971 973 973 973 973 973 974 974 975 975 976 976 976 976 977 976 976 976 976 976 975 975 976 976 976 975 975 976 976 975 975 975 976 976 975 975 975 975 975 975 975 975 975 975 975 975 975 975 975 975 975 975 975 975 974 974 974 973 973 973 973 973 973 973 973 972 973 973 973 973 972 973 973 975 975 974 974 974 975 975 974 974 974 974 974 974 974 974 974 974 974 973 973 973 973 972 973 973 973 972 972 972 972 971 971 971 971 971 970 970 969 969 969 968 968 968 968 968 968 968 968 968 968 968 968 966 967 967 966 966 966 966 966 966 965 965 965 965 965 964 964 964 964 964 964 964 962 962 962 962 961 961 961 960 960 960 959 959 959 959 959 958 958 959 959 959 959 959 959 959 959 959 959 959 959 958 959 959 959 959 958 959 959 959 959 958 959 959 959 959 958 959 959 959 959 959 959 959 959 959 958 958 958 959 959 958 959 959 958 958 958 958 958 957 957 957 957 957 957 957 956 957 957 956 956 956 956 956 956 955 955 955 955 955 955 955 956 955 955 955 956 955 955 955 955 955 954 954 954 953 953 954 953 953 953 952 952 952 952 952 952 952 952 952 952 952 952 952 952 952 953 953 953 953 952 953 953 953 953 952 952 952 952 952 952 951 951 951 950 950 950 950 950 949 949 948 948 948 948 948 947 947 947 946 946 946 946 946 945 945 944 944 944 944 944 944 943 943 943 943 942 941 941 941 941 941 941 941 940 940 940 940 940 939 939 939 938 938 938 938 938 937 937 937 937 937 937 937 936 936 937 936 936 936 936 936 936 936 936 936 935 935 935 935 935 935 935 935 934 934 934 934 933 933 933 933 933 933 933 933 932 932 932 932 931 931 931 931 931 931 931 930 930 930 930 930 929 929 929 929 929 929 929 928 928
961 961 961 961 960 961 961 961 961 960 961 961 961 961 961 961 961 961 961 961 961 961 960 960 960 960 960 960 960 959 960 960 959 959 959 959 959 959 959 959 960 960 960 960 959 959 959 959 959 958 958 958 958 958 958 958 958 958 958 958 958 958 958 958 958 958 958 958 958 958 958 958 958 958 958 958 958 958 958 958 959 959 960 960 959 960 960 960 960 960 960 960 960 960 960 961 961 960 960 959 960 960 961 961 961 961 961 961 961 961 961 962 962 962 961 961 962 962 962 961 961 962 962 962 962 963 963 963 963 963 963 963 963 963 963 963 963 963 962 962 962 962 962 962 963 963 963 965 964 964 964 964 963 963 963 962 963 963 963 963 964 964 964 966 966 966 966 966 965 965 965 965 966 966 966 966 966 967 967 967 967 967 967 966 966 966 967 968 966 966 966 968 968 967 967 967 968 969 968 968 968 970 971 969 969 969 969 970 970 970 970 971 971 971 971 971 972 972 972 971 971 973 973 972 972 972 973 973 971 971 971 973 973 973 973 974 974 974 973 973 974 974 974 973 974 974 974 974 975 975 975 975 973 975 975 975 975 973 975 975 975 975 975 975 975 975 975 975 975 975 975 975 975 975 975 975 974 975 975 975 975 974 974 974 974 974 973 973 973 973 972 973 973 973 972 972 973 973 972 972 973 973 973 972 973 973 973 973 974 973 973 973 974 974 974 974 974 974 974 974 973 973 973 973 972 972 973 973 972 972 972 972 971 971 971 971 971 970 970 969 969 969 968 968 968 968 968 968 968 968 968 968 968 966 966 966 967 966 966 966 966 966 965 965 965 965 962 964 964 964 963 963 963 963 962 962 962 962 961 961 961 961 960 960 959 959 959 959 959 958 958 958 959 959 959 959 959 959 959 959 959 959 959 958 958 958 959 959 958 958 958 959 959 958 958 958 959 959 958 958 958 959 959 958 958 959 959 959 958 958 958 958 959 958 958 959 959 958 958 958 958 958 957 957 957 957 957 957 956 956 956 957 956 956 956 956 956 955 955 955 955 955 953 953 953 953 954 954 954 953 953 954 954 954 953 953 953 953 953 953 953 953 953 952 952 952 952 952 952 952 952 952 952 952 952 952 952 952 952 952 953 953 953 952 952 953 953 952 952 952 952 952 952 952 952 951 951 950 950 950 950 950 949 949 949 948 948 948 947 947 947 947 946 946 946 946 946 945 944 944 944 944 944 944 943 942 942 942 942 942 941 941 941 941 941 941 941 940 940 940 940 940 939 939 938 938 938 938 938 937 937 937 937 937 936 937 937 936 936 936 936 936 936 936 936 936 936 936 935 935 935 935 935 935 935 935 935 934 934 934 934 933 933 933 933 933 933 933 932 932 932 932 932 931 931 931 931 931 931 930 930 930 930 930 930 929 929 929 929 929 929 929 928 928
960 961 961 960 960 960 961 961 960 960 960 961 961 961 961 961 961 961 961 961 961 961 960 960 960 960 960 960 959 959 959 960 959 959 959 959 959 959 959 959 959 960 960 959 959 959 959 959 958 958 958 958 958 958 958 958 958 958 958 958 958 958 958 958 958 958 958 958 958 958 958 958 958 958 958 958 958 958 958 958 958 959 960 959 959 959 960 960 960 960 960 960 960 960 960 960 961 960 959 959 959 960 961 961 961 961 961 961 961 961 961 962 962 961 961 961 962 962 961 961 961 962 962 962 962 962 963 963 963 963 963 963 963 963 963 963 963 963 962 962 962 962 962 962 963 963 963 962 963 963 963 963 963 963 962 962 963 963 963 963 964 964 964 964 965 965 965 964 964 964 964 964 964 965 965 965 965 965 966 966 966 965 965 965 965 965 964 964 965 965 965 964 964 965 965 965 965 965 966 966 966 966 966 967 967 967 965 965 967 970 970 971 971 971 971 971 972 972 971 971 971 973 973 972 972 972 973 973 971 971 971 973 973 973 973 973 974 974 973 973 974 974 973 973 973 974 974 973 973 974 974 973 973 974 974 974 973 973 974 974 974 973 973 974 974 974 973 973 974 974 974 974 974 974 974 974 974 974 974 974 974 974 974 974 974 973 973 973 973 972 972 972 973 972 972 972 973 973 972 972 973 973 972 972 973 973 973 973 973 973 973 973 973 974 974 973 973 974 974 973 973 973 973 972 972 972 973 972 972 972 972 972 971 971 971 971 971 970 969 969 969 969 967 967 967 967 966 966 966 966 966 965 965 965 965 965 964 964 964 964 964 963 963 964 964 964 962 963 963 963 963 963 963 963 962 962 962 962 961 961 961 961 960 959 959 959 959 959 958 958 958 958 959 959 959 959 959 959 959 959 959 959 957 957 957 957 957 957 957 957 957 957 957 957 957 957 957 959 958 958 958 959 959 958 958 958 959 958 958 958 958 956 958 957 957 957 959 957 958 958 958 958 957 957 957 955 955 954 955 955 955 954 954 954 954 954 953 954 954 954 953 953 953 953 953 953 954 954 954 953 953 954 954 953 953 953 953 953 953 953 953 953 953 952 952 952 952 952 952 952 952 952 952 952 952 952 952 952 952 952 953 953 952 952 952 953 953 952 952 952 952 952 952 952 952 952 951 950 950 950 950 950 949 949 949 949 948 947 947 947 947 947 946 946 946 946 946 944 944 944 943 943 943 943 943 942 942 942 942 942 942 941 941 941 941 941 941 940 940 940 940 940 939 938 938 938 938 938 937 937 937 937 937 936 936 936 937 936 936 936 936 936 936 936 936 936 936 935 935 935 935 935 935 935 935 935 935 934 934 934 934 933 933 933 933 933 932 932 932 932 932 932 932 931 931 931 931 931 930 930 930 930 930 930 930 930 929 929 929 929 929 929 928 928
960 960 960 960 960 960 960 960 960 960 960 960 961 961 961 961 961 961 961 961 961 961 960 960 960 960 960 959 959 959 959 959 959 959 959 959 959 958 958 958 958 958 958 958 958 958 957 957 957 957 957 957 957 957 957 957 957 957 957 957 957 956 956 957 957 957 956 957 957 957 957 957 957 957 957 957 957 957 957 957 957 957 957 958 958 958 957 957 959 959 959 958 958 958 958 958 958 958 959 959 959 959 959 960 960 960 960 959 959 959 959 959 962 960 960 960 961 962 961 961 961 961 962 962 962 962 963 963 963 963 963 963 963 963 963 963 963 962 962 962 962 962 962 962 962 963 962 962 962 963 963 963 963 963 962 962 962 963 963 963 964 964 964 964 965 965 964 964 964 964 964 964 964 964 965 965 965 965 966 966 966 965 965 965 965 965 964 964 965 965 965 964 964 965 965 965 965 965 966 966 966 966 966 967 967 967 965 965 967 967 967 966 967 969 969 969 968 968 970 970 970 969 969 970 970 970 968 968 970 970 970 969 973 973 973 973 974 973 973 973 973 974 973 973 973 974 973 973 973 974 974 973 973 973 974 974 973 973 973 974 974 973 973 974 974 974 973 973 974 974 974 974 974 974 974 974 974 974 974 974 974 974 974 974 974 973 973 973 973 972 972 972 971 971 971 971 971 971 971 971 971 972 972 972 972 973 973 973 973 973 973 973 973 974 974 973 973 973 974 973 973 973 971 971 971 971 971 971 971 971 971 969 968 969 969 969 968 967 968 968 968 967 966 967 967 966 966 966 966 966 965 965 965 965 965 965 964 964 964 964 964 963 963 964 964 962 962 962 963 963 963 963 963 963 962 962 962 960 960 960 960 958 957 957 957 957 956 955 956 956 956 956 957 958 958 958 957 957 958 958 958 957 957 957 957 957 957 957 957 957 957 957 957 957 957 957 956 956 957 957 957 957 957 957 957 957 957 956 957 957 956 956 956 957 957 957 957 957 957 957 957 956 955 955 955 955 954 954 955 955 955 954 954 954 954 953 953 953 954 954 953 953 953 953 953 953 953 954 953 953 953 953 954 953 953 953 953 953 953 953 953 953 953 952 952 952 952 952 952 952 952 952 952 952 952 952 952 952 952 952 952 953 952 951 951 951 950 951 951 951 951 951 950 951 951 951 950 950 951 951 951 950 949 949 949 949 949 948 947 947 947 947 946 945 945 945 943 943 943 943 943 943 943 943 942 942 942 942 942 942 942 941 941 941 940 940 940 939 939 939 939 939 938 938 938 938 938 937 937 937 937 937 936 936 936 936 936 935 935 935 935 935 935 935 935 935 935 935 935 935 935 934 934 934 934 934 934 934 934 934 934 934 933 933 933 933 933 932 932 932 932 932 932 931 931 931 931 930 930 930 930 930 929 929 929 929 929 928 928 928 928 928 927 927
960 960 960 960 960 960 959 959 960 960 960 959 960 960 960 960 960 959 960 960 960 959 959 959 959 959 959 959 959 959 959 958 958 959 959 959 958 958 958 958 958 958 957 958 958 958 957 957 957 957 957 957 957 957 957 957 957 957 957 957 956 956 956 956 957 956 956 957 957 957 957 957 957 957 957 957 957 957 957 957 957 957 957 957 958 957 957 957 957 959 958 958 958 958 958 958 958 958 958 959 959 959 959 959 960 960 959 959 959 959 959 959 959 959 960 960 959 959 960 960 960 960 960 961 961 961 960 960 961 961 961 960 961 962 962 962 961 960 961 961 961 961 961 961 961 962 962 962 962 963 963 963 963 961 962 962 962 962 962 962 963 964 964 964 964 965 964 964 964 964 964 964 964 964 965 965 965 965 965 966 966 965 965 965 965 964 964 964 964 965 964 964 964 964 965 965 965 965 965 966 966 966 966 966 967 965 965 965 967 967 966 966 966 967 969 969 968 968 968 970 969 969 969 969 970 968 968 968 968 970 969 969 970 971 971 971 971 971 972 972 971 971 971 971 971 970 971 971 971 974 974 973 973 973 974 973 973 973 973 974 973 973 973 973 974 973 973 973 973 974 974 974 974 974 974 974 974 974 974 974 974 974 974 974 973 973 972 972 970 971 971 971 971 971 971 971 971 971 971 971 971 971 972 972 972 971 971 971 973 973 973 973 973 973 973 973 972 972 971 971 971 971 971 971 971 971 971 970 970 971 969 969 968 968 969 968 968 967 967 968 967 967 966 966 966 966 966 966 966 965 965 965 965 965 965 965 964 964 964 964 963 963 963 963 964 962 962 962 963 963 963 961 961 960 961 961 961 960 960 960 958 958 957 957 957 956 956 955 955 956 956 956 957 957 958 957 957 957 957 958 957 957 957 957 957 957 957 957 957 957 957 957 957 957 957 956 956 956 956 957 957 957 957 957 957 957 957 956 956 957 956 956 956 956 957 957 957 957 957 957 956 956 955 955 955 955 954 954 954 955 955 954 954 954 954 953 953 953 954 954 953 953 953 953 953 951 951 950 951 951 951 950 950 951 951 951 951 951 951 951 951 950 951 951 951 951 950 951 951 951 951 951 951 951 951 951 950 950 951 951 951 950 950 951 951 950 950 950 951 951 951 951 950 950 951 950 950 950 950 951 950 950 950 950 949 949 949 948 948 947 947 947 946 946 945 945 943 943 943 943 943 943 943 943 942 942 941 941 941 941 941 940 940 940 940 940 939 939 939 939 939 939 938 938 938 938 938 937 937 937 937 937 936 936 936 936 935 935 935 935 935 935 935 935 935 935 935 935 935 935 934 934 934 934 934 934 934 934 934 934 934 933 933 933 933 933 933 933 932 932 931 931 931 931 931 931 931 931 930 930 930 930 929 929 929 929 929 929 928 928 928 928 928 927
960 960 960 960 960 959 959 959 959 960 959 959 960 960 960 960 960 959 959 960 959 959 959 959 959 959 959 959 959 959 958 958 958 958 959 958 958 958 958 958 958 958 957 957 958 957 957 957 957 957 957 957 957 957 957 957 957 957 957 956 956 956 956 956 956 956 956 957 957 956 957 957 957 957 956 957 957 957 957 956 957 957 957 957 957 957 957 957 957 957 958 958 958 958 957 958 958 958 958 958 959 959 959 959 959 959 959 959 959 959 959 959 959 959 960 959 959 959 959 960 960 960 960 960 961 960 960 960 960 961 960 960 961 961 962 961 961 960 960 961 961 961 961 961 961 961 961 961 961 961 961 961 961 961 961 962 962 962 962 962 962 963 963 963 963 963 963 963 963 962 962 963 963 963 963 964 964 964 964 963 964 964 964 964 962 963 963 963 963 963 963 963 963 963 962 963 963 963 963 963 964 964 964 964 963 963 963 965 965 967 966 966 966 967 967 967 968 968 968 967 969 969 969 969 967 968 968 968 968 967 969 969 970 970 971 971 971 971 971 972 971 971 971 971 970 970 971 971 971 971 971 972 972 972 971 971 972 972 972 972 973 973 973 973 973 973 973 973 973 972 973 973 973 972 972 973 973 973 971 971 972 972 972 971 971 972 972 972 970 970 971 971 971 971 970 971 971 971 971 970 971 971 972 972 971 971 971 971 971 971 972 972 972 971 971 972 972 972 971 971 971 971 971 971 970 971 971 970 970 969 969 969 968 968 967 968 968 967 967 966 967 967 966 966 966 966 966 966 965 965 965 965 965 965 965 964 963 963 963 961 962 962 962 962 961 961 961 961 961 961 961 961 961 960 960 961 961 960 960 958 958 958 957 957 956 956 956 955 955 955 956 956 957 957 957 957 957 957 957 957 957 957 957 957 956 957 957 957 957 956 957 957 957 957 956 956 956 956 956 956 957 957 957 957 956 957 957 956 956 956 956 956 956 956 956 957 957 957 956 956 956 956 955 955 955 955 954 954 954 955 954 953 953 953 951 952 952 952 951 951 951 951 951 950 951 951 951 950 950 951 950 950 950 950 951 951 951 951 951 951 950 950 951 951 951 950 950 951 951 951 951 951 951 951 951 950 950 950 950 951 950 950 950 950 950 950 950 950 950 951 951 951 950 950 950 950 950 950 950 950 950 950 950 950 949 949 949 948 948 947 947 947 946 945 945 945 943 943 943 943 943 943 942 942 941 941 941 941 941 941 940 940 940 940 940 939 939 939 939 939 939 939 938 938 938 938 938 937 937 937 937 937 936 936 936 935 935 935 935 935 935 935 935 935 935 935 935 935 935 934 934 934 934 934 934 934 934 934 934 934 934 933 933 933 933 933 933 933 932 931 931 931 931 931 931 931 931 931 931 930 930 930 929 929 929 929 929 929 929 928 928 928 928 928
960 960 960 960 959 959 959 959 959 959 959 959 960 960 959 960 960 959 959 959 959 959 959 959 959 959 959 959 959 958 958 958 958 958 958 958 958 958 958 957 958 958 957 957 957 957 957 957 957 957 957 957 957 957 957 957 957 957 956 956 956 956 956 956 956 956 956 957 956 956 956 957 957 956 956 956 957 957 956 956 956 957 957 957 957 957 957 957 957 957 957 958 958 957 957 957 958 958 958 958 958 959 959 959 959 959 959 959 959 958 958 959 959 959 959 959 959 959 959 959 960 960 960 960 959 960 960 960 960 960 960 960 961 961 960 961 961 960 960 960 961 961 961 961 961 961 961 961 961 961 961 961 961 961 961 961 962 962 962 962 962 962 963 963 963 963 963 963 963 962 962 963 963 963 963 963 964 964 964 963 963 964 964 964 962 962 963 963 963 963 963 963 963 962 962 962 963 963 963 963 964 964 964 963 963 963 963 963 963 964 964 964 964 967 967 967 967 968 967 967 967 969 969 967 967 967 968 968 967 967 967 969 970 969 969 971 971 971 971 970 971 971 971 971 970 970 970 971 971 971 971 972 972 971 971 971 972 972 972 972 972 973 973 973 973 973 973 973 972 972 972 973 973 972 972 972 973 973 971 971 971 972 972 971 971 972 972 970 970 970 971 971 971 970 970 970 971 971 970 970 970 971 972 971 971 971 971 971 971 971 971 972 972 971 971 972 972 971 971 971 971 971 971 970 970 971 971 970 969 969 969 969 968 967 967 967 968 967 966 966 966 967 966 966 966 966 966 965 965 965 965 963 963 963 963 962 963 963 963 961 961 962 962 961 961 961 961 961 961 961 961 961 960 960 960 961 961 960 958 958 958 958 957 956 956 956 956 955 955 955 955 955 957 957 957 957 957 957 957 957 957 957 957 956 956 956 957 957 956 956 956 957 957 956 956 956 956 956 956 956 956 957 957 956 956 956 957 956 956 956 956 956 956 956 956 956 957 956 956 956 956 955 954 954 954 953 953 953 953 952 952 953 953 951 951 952 952 952 951 951 951 951 951 950 950 951 951 950 950 949 950 950 950 950 950 951 951 951 951 950 950 950 951 951 950 950 950 951 951 951 951 951 951 951 950 950 950 950 950 950 950 950 950 950 950 950 950 950 950 950 951 951 950 950 950 950 950 950 950 950 950 950 950 949 949 949 949 948 947 947 947 947 945 945 945 945 943 943 943 942 942 942 942 941 941 941 941 941 941 940 940 940 940 940 939 939 939 939 939 939 939 939 938 938 938 938 938 937 937 937 937 937 936 936 935 935 935 935 935 935 935 935 935 935 935 935 935 935 934 934 934 934 934 934 934 934 934 934 934 934 934 933 933 933 933 932 932 932 932 932 931 931 931 931 931 931 931 931 931 930 930 930 929 929 929 929 929 929 929 928 928 928 928 928
959 960 960 959 959 959 959 959 959 959 959 959 960 959 959 959 960 959 959 959 959 959 959 959 959 959 959 959 958 958 958 958 958 958 958 958 958 958 957 957 957 958 957 957 957 957 957 957 957 957 957 957 957 957 957 957 957 957 956 956 956 956 955 955 955 955 955 956 956 956 955 955 956 956 956 956 956 956 956 956 956 956 955 955 955 955 955 955 956 956 956 956 955 956 956 956 956 956 957 957 957 957 957 959 959 959 959 959 958 958 958 959 959 959 959 959 959 959 959 959 959 960 960 959 959 959 960 960 960 960 960 960 961 960 960 960 961 960 960 960 960 961 961 961 961 961 961 961 961 961 961 961 961 961 961 959 959 962 962 962 962 962 963 963 963 963 963 963 962 962 962 963 963 963 963 963 964 964 963 963 963 964 964 962 962 962 963 963 963 963 963 963 963 962 962 962 963 963 963 963 963 964 964 963 963 963 963 963 963 963 964 964 963 963 965 965 965 964 965 965 965 964 964 965 965 965 964 964 965 965 965 966 969 969 969 969 971 971 970 970 968 967 967 969 969 969 970 971 971 971 971 971 972 971 971 971 972 972 972 972 972 973 973 973 973 973 973 973 972 972 972 973 973 972 972 972 973 973 971 971 971 972 967 967 967 967 972 968 968 968 968 967 967 968 968 968 967 968 970 969 969 968 968 969 969 971 971 971 971 971 971 972 971 971 971 971 972 971 969 969 969 968 969 969 969 969 968 967 967 967 967 966 967 966 966 966 965 965 965 965 965 964 964 965 965 965 964 964 964 964 963 963 963 963 962 962 962 963 961 961 961 962 962 961 961 961 961 961 961 961 961 961 960 958 958 958 956 957 957 957 958 958 956 954 954 954 954 953 953 953 953 953 954 956 956 956 955 955 955 955 955 955 955 955 955 955 954 954 955 955 955 954 954 954 954 954 954 954 955 955 955 954 954 955 955 955 955 955 955 955 955 954 955 955 955 955 954 955 955 955 954 954 954 954 953 953 953 953 953 952 952 953 953 951 951 951 952 952 951 951 951 951 950 950 950 950 951 950 949 949 949 950 950 950 950 950 951 951 950 950 950 950 951 950 950 950 950 951 951 951 951 951 951 950 950 950 950 950 950 950 950 950 950 950 950 950 950 950 950 950 950 951 950 950 948 948 948 948 948 950 950 950 947 949 949 949 949 947 947 947 945 944 944 944 944 943 943 943 943 942 942 942 942 941 941 941 941 941 940 940 940 940 940 939 939 939 939 939 939 939 939 939 938 938 938 938 938 937 937 937 937 937 936 935 935 935 935 935 935 935 935 935 935 935 935 935 935 934 934 934 934 934 934 934 934 934 934 934 934 934 934 933 933 933 933 932 932 932 932 932 932 931 931 931 931 931 931 931 930 930 930 930 929 929 929 929 929 929 928 928 928 928 928 927
958 958 959 959 959 959 958 958 958 958 958 958 958 958 958 958 958 958 958 958 958 958 958 958 958 958 958 957 957 957 957 957 956 957 957 957 956 956 956 956 956 956 956 956 956 956 955 955 955 955 955 955 955 956 956 956 955 955 955 955 955 955 955 955 955 955 954 954 955 955 955 955 956 956 956 956 956 956 956 956 956 956 955 955 955 955 955 955 956 956 956 955 955 956 956 956 956 956 957 957 957 957 957 957 957 957 957 957 957 957 957 957 957 957 957 957 957 957 958 958 958 957 957 958 958 958 957 958 959 959 959 958 958 958 958 958 958 958 959 959 959 958 958 959 959 959 958 958 959 959 959 958 958 959 959 959 959 959 961 961 961 961 960 962 962 962 963 963 960 960 960 960 963 961 963 963 963 964 963 963 963 963 964 961 961 962 962 963 963 963 963 963 963 961 961 961 963 961 961 961 961 960 961 961 961 961 961 963 963 963 964 964 963 963 965 965 964 964 964 965 965 964 964 965 965 965 964 964 965 965 965 966 966 967 967 967 966 966 966 968 968 967 968 968 969 969 968 968 968 970 970 968 969 970 970 970 969 969 971 971 971 969 969 971 971 971 969 969 970 970 970 969 968 969 969 969 968 967 968 968 967 967 966 967 967 967 967 967 968 968 967 967 967 967 968 967 967 968 968 969 969 968 968 969 969 969 968 968 969 969 969 968 968 969 969 969 968 968 969 969 968 968 968 969 969 968 968 967 967 967 966 966 965 966 966 966 965 965 965 965 965 964 964 965 965 964 964 964 964 964 963 963 963 963 962 962 962 960 960 960 960 959 958 959 959 959 958 958 959 959 958 957 957 958 958 957 957 956 957 957 956 956 955 954 954 954 953 953 953 953 953 954 954 956 956 956 955 955 955 955 955 955 955 955 955 955 954 954 955 955 955 954 954 954 954 954 954 954 955 955 955 954 954 955 955 955 955 955 955 955 955 954 954 955 955 954 954 954 955 955 954 954 954 954 953 953 953 953 952 952 952 952 953 951 951 951 952 951 951 951 950 951 950 950 950 950 949 949 949 949 949 949 948 949 949 949 948 948 949 949 949 948 948 949 949 949 948 948 949 949 949 947 948 949 949 949 948 949 949 949 949 948 948 948 948 948 948 948 948 948 948 948 948 948 948 948 948 948 948 948 947 947 947 947 947 946 946 945 945 945 945 944 944 944 944 943 943 943 943 942 942 942 942 941 940 940 940 939 939 939 939 940 939 939 939 939 939 938 938 938 938 938 937 937 937 937 937 936 936 936 936 936 935 935 935 935 935 935 935 935 935 935 934 934 934 934 934 934 934 934 934 934 934 934 934 934 933 933 933 933 933 933 933 933 932 932 932 932 932 932 932 932 931 931 931 931 931 930 930 930 930 930 929 929 929 929 929 928 928 928 928 928 927 927
958 958 958 959 959 959 958 958 958 958 958 958 958 958 958 958 958 958 958 958 958 958 958 958 958 958 958 957 957 957 957 957 956 956 957 956 956 956 956 956 956 956 956 956 956 955 955 955 955 955 955 955 955 955 956 955 955 955 955 955 955 955 955 955 955 954 954 954 954 955 955 955 956 956 956 956 956 956 956 956 956 956 955 955 955 955 955 955 955 956 955 955 955 955 956 956 956 956 956 957 957 957 957 957 957 957 957 957 957 957 957 957 957 957 957 957 957 957 957 958 957 957 957 957 958 957 957 958 958 959 958 958 958 958 958 958 958 958 958 959 958 958 958 958 959 958 958 958 958 959 958 958 958 958 959 959 959 959 959 961 961 960 960 960 962 962 961 960 960 960 960 959 960 961 961 961 961 961 962 962 962 961 961 961 961 961 961 961 962 962 962 961 961 961 961 961 961 960 961 961 961 960 960 961 961 961 961 961 961 961 960 961 961 963 963 965 964 964 964 965 964 964 964 964 965 964 964 964 965 965 966 966 966 967 967 966 966 966 966 966 967 967 968 968 968 968 968 968 968 970 968 968 969 969 970 969 969 969 969 971 969 969 969 969 971 969 969 969 969 970 969 969 968 968 969 968 968 967 967 965 967 967 966 966 965 967 967 967 967 965 967 967 967 967 966 967 967 968 968 969 968 968 968 968 969 968 968 968 968 969 968 968 968 968 969 968 968 968 968 968 968 968 968 968 968 968 968 967 967 966 966 966 965 965 966 966 965 965 965 965 964 964 964 964 965 964 964 964 964 963 963 963 961 960 960 960 960 960 960 960 960 959 958 958 959 958 958 958 958 959 958 958 957 957 957 957 957 956 956 956 956 956 955 955 954 954 953 953 953 953 953 954 954 954 956 955 955 955 955 955 955 955 955 955 955 954 954 954 954 955 954 954 954 954 954 954 954 954 954 955 954 954 954 954 955 955 955 955 955 955 954 954 954 955 955 954 954 954 955 955 954 954 954 954 953 951 951 951 951 951 951 951 950 950 950 950 950 950 950 950 950 949 949 950 950 949 949 949 949 949 949 949 948 949 949 948 948 948 949 949 948 948 948 949 949 948 948 948 948 949 947 947 948 949 949 948 948 948 949 949 948 948 948 948 948 948 948 948 948 948 948 948 948 948 948 948 948 948 948 947 947 947 947 947 946 946 946 945 945 945 945 944 944 944 944 943 943 943 942 941 941 941 940 940 940 940 939 939 939 939 939 939 939 939 939 939 938 937 938 938 938 937 937 937 937 937 936 936 936 936 936 936 935 935 935 935 935 935 935 935 935 934 934 934 934 934 934 934 934 934 934 934 934 934 934 934 933 933 933 933 933 933 933 933 932 932 932 932 932 932 932 932 931 931 931 931 931 930 930 930 930 930 929 929 929 929 929 928 928 928 928 927 927 927
958 958 958 958 959 958 958 958 958 958 958 958 958 958 958 958 958 958 958 958 958 958 958 958 958 958 958 957 957 956 957 957 956 956 956 956 956 956 956 955 956 956 956 956 955 955 955 955 955 955 955 955 955 955 955 955 955 955 955 954 955 955 955 955 954 954 954 954 954 954 955 955 956 956 956 956 956 956 956 956 956 956 955 955 954 955 955 955 955 955 955 955 955 955 955 956 956 956 956 956 957 957 957 957 956 957 957 957 957 956 957 957 957 957 956 957 957 957 957 956 957 957 957 957 957 957 957 958 958 957 958 958 958 958 957 958 958 958 958 957 958 958 958 958 958 958 958 958 958 958 958 958 958 958 957 959 959 959 959 959 960 960 960 960 960 961 961 960 960 960 959 959 960 960 961 961 961 961 961 962 961 961 961 961 961 961 961 961 961 962 961 961 961 961 961 961 961 960 960 961 960 960 960 960 960 961 961 961 961 960 960 961 961 961 961 961 962 962 962 962 963 963 963 963 961 962 962 962 962 962 964 966 966 967 966 966 966 966 966 965 965 967 968 968 967 967 968 968 968 967 967 968 969 969 968 969 969 969 969 968 969 969 969 969 968 969 969 969 969 967 969 969 968 968 966 968 968 967 965 965 967 967 966 965 965 967 967 967 965 965 965 967 967 966 966 966 967 968 967 967 967 968 968 968 967 968 968 968 968 968 968 968 968 968 967 968 968 968 967 967 968 968 968 967 967 968 968 967 966 966 966 965 965 965 965 963 963 963 963 962 963 963 963 963 962 962 962 962 961 961 961 961 961 960 960 960 960 960 960 958 959 959 958 958 957 958 958 958 958 957 958 958 957 956 956 957 957 956 955 955 956 955 955 955 955 954 952 952 952 951 951 953 953 953 953 954 954 954 954 953 954 954 954 954 952 953 953 953 953 952 953 953 953 953 952 953 953 953 953 952 953 953 953 953 953 953 953 953 953 953 953 953 953 953 953 953 953 953 952 952 952 952 952 951 951 951 951 951 951 951 951 951 950 950 950 950 950 950 950 950 949 949 949 949 949 949 949 949 949 949 949 949 948 948 948 948 948 948 948 947 948 948 948 948 947 948 948 948 948 947 947 947 948 948 947 948 948 948 948 947 948 948 948 948 947 948 948 948 948 947 948 948 948 948 947 948 948 948 947 947 947 947 947 946 946 946 945 945 945 945 944 944 944 942 941 942 942 942 941 941 941 941 940 940 940 939 939 939 939 939 939 939 939 939 939 938 938 937 937 938 937 937 937 937 937 936 936 936 936 936 936 936 935 935 935 935 935 935 935 935 934 934 934 934 934 934 934 934 934 934 934 934 934 934 934 934 933 933 933 933 933 933 933 933 932 932 932 932 932 932 932 932 931 931 931 931 931 930 930 930 930 930 929 929 929 929 929 928 928 928 927 927 927 927
958 958 958 958 958 958 958 958 958 958 958 958 958 958 958 958 958 958 957 957 958 958 958 957 957 958 958 957 956 956 957 957 956 956 956 956 956 956 955 955 955 956 956 955 955 955 955 955 955 955 955 955 955 955 955 955 955 955 954 954 954 955 955 954 954 954 954 954 954 954 954 955 956 956 956 956 956 956 956 956 956 956 955 954 954 954 955 955 955 955 955 955 955 955 955 955 956 956 956 956 956 957 957 956 956 956 957 957 956 956 956 957 957 956 956 956 957 957 956 956 957 957 957 957 957 957 957 958 957 957 957 958 958 957 957 957 958 958 957 957 957 958 958 958 958 958 958 958 958 958 958 958 958 957 957 957 959 959 959 959 959 960 960 960 959 959 961 960 960 958 958 959 960 960 960 961 961 961 961 960 961 961 961 961 961 961 961 961 961 961 961 961 961 961 961 961 961 960 960 960 960 960 960 960 960 960 961 961 960 960 960 960 961 961 961 961 962 962 962 962 962 963 963 961 961 961 962 962 962 962 964 964 964 963 964 964 964 964 965 965 965 964 968 967 967 967 967 968 967 967 967 968 969 968 968 968 969 969 968 968 968 969 969 968 968 968 969 969 967 967 967 969 968 966 966 966 968 964 964 964 964 963 963 964 964 964 963 964 964 964 964 963 963 964 964 964 963 967 967 967 967 968 968 967 967 967 968 968 968 968 968 968 968 967 967 967 968 967 967 967 967 968 967 967 967 967 964 964 966 966 966 964 964 964 964 963 963 963 963 962 962 963 963 962 962 962 962 962 961 961 961 961 960 960 960 960 960 960 958 958 958 959 958 957 957 957 958 958 957 957 957 958 956 956 956 956 953 955 955 955 955 953 953 953 953 952 952 952 952 951 951 953 953 953 953 953 954 954 954 953 953 954 954 952 952 952 953 953 952 952 952 953 953 952 952 952 953 953 952 952 953 953 953 953 953 953 953 953 953 953 953 953 953 953 953 953 953 953 952 952 952 952 952 951 951 951 951 951 951 950 951 951 950 950 949 950 950 950 950 949 949 949 949 949 948 949 949 949 949 948 949 949 948 948 948 948 948 948 947 947 947 948 948 947 947 947 948 948 947 947 947 947 948 947 947 948 948 948 947 947 948 948 948 947 947 947 948 948 947 947 947 948 948 947 947 947 948 947 947 947 947 947 946 946 946 946 945 944 944 942 942 942 942 941 941 942 942 942 941 941 941 941 940 940 939 939 939 939 939 939 939 939 939 939 938 938 938 937 937 937 937 937 937 937 936 936 936 936 936 936 936 936 935 935 935 935 935 935 935 934 934 934 934 934 934 934 934 934 934 934 934 934 934 934 934 934 933 933 933 933 933 933 933 933 933 932 932 932 932 932 932 932 931 931 931 931 931 930 930 930 930 930 929 929 928 929 929 928 928 927 927 927 927 927
957 958 958 958 958 958 958 958 958 958 958 958 958 958 958 958 958 957 957 957 957 958 957 957 957 957 958 956 956 956 956 957 956 956 956 956 956 954 954 954 954 954 954 954 954 954 953 954 954 954 955 955 955 955 955 955 954 953 954 954 954 954 954 954 954 954 953 953 954 954 954 953 953 954 954 954 953 953 954 954 954 953 953 953 953 953 953 953 954 954 954 953 953 954 954 954 953 953 954 954 954 954 954 954 954 954 954 954 955 955 955 954 955 955 955 955 954 955 956 956 956 957 957 957 957 956 956 958 957 956 956 956 955 956 956 956 955 955 956 956 956 956 956 957 957 957 957 956 956 956 956 956 955 955 955 955 955 955 956 956 956 956 960 959 959 959 959 960 957 957 957 957 960 960 960 960 961 961 960 960 960 961 961 961 961 961 961 961 961 961 961 961 961 961 961 961 961 960 960 960 960 960 960 960 960 959 959 958 959 959 959 960 961 961 961 961 961 962 962 962 962 963 963 961 961 961 962 962 962 962 964 964 963 963 963 964 964 963 963 964 964 964 964 965 965 965 965 965 966 966 966 965 965 966 966 966 965 965 966 966 966 964 964 965 965 965 964 964 965 965 965 963 963 964 964 964 963 963 964 964 964 963 963 964 964 964 963 963 964 964 964 963 963 964 964 964 963 963 965 965 965 964 964 965 965 965 965 965 966 966 966 965 965 966 966 966 964 964 965 965 965 964 964 965 965 965 964 964 964 964 963 963 964 964 963 963 963 963 962 962 962 963 963 962 962 962 962 961 961 961 961 961 958 958 958 958 956 958 958 958 958 955 955 955 955 955 954 954 955 955 955 954 954 954 954 954 953 954 954 954 953 953 953 953 952 952 952 952 952 951 951 953 953 953 953 953 954 954 953 953 953 954 954 952 952 952 953 953 952 952 952 953 953 952 952 952 953 953 952 952 952 953 953 953 953 953 953 953 953 953 953 953 953 953 953 953 953 953 952 952 952 952 951 951 951 951 951 951 950 950 950 951 950 949 949 949 950 950 949 949 949 949 949 948 948 948 949 949 948 948 948 949 948 948 948 948 948 947 947 947 947 948 947 947 947 947 947 946 946 946 946 945 946 946 946 946 948 946 947 947 947 948 948 947 947 945 945 944 946 946 946 945 945 946 946 946 945 945 945 945 945 944 944 944 944 943 944 944 944 942 942 942 942 941 941 941 942 941 941 941 941 941 940 939 939 939 939 939 939 939 939 939 939 938 938 938 938 937 937 937 937 937 937 936 936 936 936 936 936 936 936 936 935 935 935 935 935 935 934 934 934 934 934 934 934 934 934 934 934 934 934 934 934 934 934 934 933 933 933 933 933 933 933 933 933 933 933 932 932 932 932 932 931 931 931 931 931 930 930 930 930 930 929 928 928 928 929 928 927 927 927 927 927 926
956 956 957 957 957 957 957 957 957 957 957 957 957 957 957 957 956 956 957 957 957 956 956 956 956 956 956 956 956 956 956 955 955 955 955 955 954 954 954 954 954 954 954 954 954 953 953 954 954 954 954 954 954 954 954 954 953 953 954 954 954 954 954 954 954 954 953 953 954 954 954 953 953 954 954 954 953 953 954 954 954 953 953 953 953 953 953 953 954 954 954 953 953 954 954 954 953 953 954 954 954 954 954 954 954 954 954 954 955 955 955 954 954 955 955 955 954 954 955 955 955 954 955 956 956 956 955 956 956 956 956 955 955 955 956 956 955 955 955 956 956 956 956 956 957 957 956 956 956 956 956 956 955 955 955 955 955 955 955 956 956 956 957 957 958 958 957 956 956 957 957 956 957 958 958 958 957 958 958 958 958 958 958 959 959 959 958 958 959 959 959 958 959 959 959 959 959 959 959 959 959 959 959 959 959 959 958 958 958 959 959 958 958 959 959 959 958 958 960 960 960 959 959 960 960 960 959 961 961 961 961 963 963 963 963 964 963 963 963 964 964 964 964 964 965 965 965 965 965 966 966 965 965 966 966 966 965 965 966 966 966 964 964 965 965 965 964 964 965 965 965 963 963 964 964 963 963 963 964 964 963 963 963 964 964 963 963 963 964 964 963 963 963 964 964 963 963 963 965 965 965 964 964 965 965 965 965 965 966 966 966 965 965 966 966 966 964 964 965 965 964 964 964 965 965 964 964 964 964 964 963 963 963 964 963 963 963 960 961 961 961 960 959 960 960 960 959 958 959 959 958 957 957 958 958 956 956 955 956 956 956 955 955 955 955 955 954 954 955 955 955 954 954 954 954 953 953 953 954 954 953 953 953 953 952 952 952 952 950 950 950 950 953 953 953 953 953 954 953 953 953 954 954 951 951 951 953 953 952 952 952 953 953 952 952 952 953 952 952 952 952 953 953 953 953 953 953 953 953 953 953 953 953 953 953 953 953 952 952 951 951 952 950 950 950 950 949 948 949 949 949 948 948 948 948 948 947 947 947 947 947 947 947 947 947 947 947 946 947 947 947 946 946 946 946 946 946 946 946 946 946 946 946 946 946 946 946 945 946 946 945 945 945 946 946 945 945 945 946 946 946 945 944 945 945 945 944 944 946 946 946 945 945 946 946 946 945 945 945 945 944 944 944 944 944 943 943 944 944 942 942 942 942 941 941 941 942 939 939 939 939 938 938 938 938 938 938 938 938 938 938 937 937 937 937 937 937 936 936 936 936 936 936 936 936 936 936 935 935 935 935 935 934 934 934 934 934 934 934 934 934 934 935 935 935 935 935 935 935 935 935 935 934 934 934 934 935 934 934 934 933 933 933 933 933 933 933 931 931 931 931 932 930 930 930 930 930 929 929 929 929 929 928 928 928 928 928 927 927 927 927 927 926 926
956 956 957 957 957 957 957 957 957 957 957 957 957 957 957 956 956 956 956 957 956 956 956 956 956 956 956 956 956 956 955 955 955 955 955 954 954 954 954 954 954 954 954 954 954 953 953 954 954 954 954 954 954 954 954 954 953 953 953 954 954 954 954 954 954 954 953 953 953 954 953 953 953 953 954 953 953 953 953 954 953 953 953 953 953 953 953 953 953 954 953 953 953 953 954 953 953 953 953 954 954 954 954 954 954 954 954 954 955 955 954 954 954 955 955 954 954 954 955 955 954 954 955 955 956 955 955 956 956 956 955 955 955 955 955 955 955 955 955 955 956 956 956 956 957 956 956 956 956 956 956 956 955 955 954 955 955 955 955 955 956 956 957 957 958 957 957 956 956 956 956 956 957 957 958 957 957 958 958 958 958 958 958 958 959 958 958 958 958 959 958 958 959 959 959 959 959 959 959 959 959 959 959 959 959 958 958 958 958 958 958 958 958 958 959 958 958 958 958 960 959 959 959 959 960 959 959 960 961 961 960 960 961 961 961 960 962 963 963 963 964 964 964 964 965 965 965 965 965 966 966 965 965 965 966 965 965 965 965 966 964 964 964 964 965 964 964 964 964 965 963 963 963 963 964 963 963 963 963 960 963 963 961 961 960 961 961 961 961 960 961 963 963 963 964 963 963 963 963 965 964 964 964 964 965 965 965 965 965 966 965 965 965 965 966 964 964 964 964 965 964 964 964 964 965 964 961 961 960 960 961 961 961 960 961 961 961 960 960 961 960 960 959 959 960 959 959 958 958 958 958 957 957 957 956 956 955 955 955 956 956 955 955 955 955 955 954 954 954 955 954 954 954 954 954 953 953 953 954 954 953 953 953 951 951 951 951 950 950 950 950 950 950 952 952 952 951 951 951 951 951 951 951 951 951 951 950 950 951 951 951 951 950 951 951 951 950 951 951 951 951 951 951 952 952 952 951 951 951 951 951 950 950 951 951 951 951 950 951 951 950 950 949 950 950 949 949 948 949 949 948 948 947 948 948 947 947 947 947 947 947 947 947 947 947 947 947 946 946 947 946 946 946 946 946 946 946 946 946 946 946 946 946 946 946 946 946 945 945 946 945 945 945 945 945 945 945 945 945 946 945 945 944 944 945 945 944 944 944 946 946 945 945 945 946 945 945 945 945 945 944 944 944 944 943 943 943 943 944 941 941 941 940 941 941 941 940 939 939 939 938 938 938 938 938 938 938 937 938 938 937 937 937 937 937 937 936 936 936 936 936 936 935 936 936 936 935 935 935 935 935 935 934 934 934 934 934 934 934 934 934 934 934 935 935 935 935 935 935 935 935 935 934 934 934 935 934 934 934 934 933 933 933 933 932 932 932 931 931 931 931 931 930 930 930 930 930 929 929 929 929 929 929 928 928 928 928 928 927 927 927 927 927 926
956 956 957 957 956 957 957 957 957 957 957 957 957 957 956 956 956 956 956 956 956 956 956 956 956 956 956 956 956 955 955 955 955 955 954 954 954 954 954 954 954 954 954 954 953 953 953 954 953 953 954 954 954 954 954 954 953 953 953 954 954 954 954 954 954 953 953 953 953 954 953 953 953 953 954 953 953 953 953 954 951 951 951 951 951 952 952 952 952 952 952 952 953 953 952 952 952 952 952 952 953 953 954 954 954 954 954 954 954 955 954 954 954 954 955 954 954 954 955 954 954 954 955 955 954 954 955 956 956 955 955 955 955 955 955 955 955 955 955 955 955 956 956 956 955 955 956 956 956 955 955 956 955 954 954 954 955 955 955 955 955 956 957 957 956 957 957 956 956 955 955 956 957 957 956 957 957 958 958 957 958 958 958 958 957 958 958 958 958 957 958 958 959 959 958 959 959 959 959 958 959 959 959 959 958 958 958 958 958 957 957 958 958 958 957 958 958 958 958 958 959 959 959 959 958 959 959 960 960 958 960 960 961 961 960 960 962 962 962 961 961 963 963 963 962 962 963 963 963 963 964 964 964 964 962 963 963 963 963 962 962 962 962 962 962 962 962 962 962 961 962 962 962 961 961 961 961 961 960 960 961 961 961 960 960 961 961 961 960 960 961 961 961 960 960 961 961 961 960 960 962 962 962 962 960 962 962 962 962 961 962 962 962 962 961 962 962 962 962 961 962 962 962 960 960 961 961 961 960 960 961 961 961 960 960 961 961 960 960 959 960 960 959 959 958 959 959 958 957 957 958 957 957 956 956 956 955 955 955 955 956 955 953 953 953 953 953 953 953 952 952 952 952 952 951 952 952 952 951 951 952 952 952 951 951 951 951 950 950 950 950 950 950 950 952 951 951 951 951 951 951 951 951 951 951 950 950 950 950 951 951 951 950 950 951 950 950 951 951 951 951 951 951 951 952 951 951 951 951 951 950 950 950 950 951 951 951 950 950 951 950 950 949 949 949 949 949 948 948 948 948 948 947 947 947 947 947 947 947 947 947 947 947 947 946 947 947 946 946 945 946 946 946 946 945 946 946 946 946 945 946 946 946 946 946 946 946 945 945 945 945 945 945 944 944 945 945 945 944 944 945 945 944 944 944 945 944 944 944 946 945 945 945 945 942 945 943 943 943 942 942 942 942 941 942 942 942 942 941 941 941 941 940 940 941 940 940 939 939 938 938 938 938 938 938 938 938 937 937 937 937 937 937 937 937 936 936 936 936 936 936 936 935 935 936 935 935 935 935 935 935 935 934 934 934 934 934 934 934 934 934 934 934 934 935 935 935 935 935 935 935 935 934 934 935 935 934 934 934 934 933 933 932 932 932 932 932 931 931 931 931 931 930 930 930 930 930 929 929 929 929 929 929 929 928 928 928 928 928 927 927 927 927 927
956 956 957 956 956 956 957 957 957 957 957 957 957 956 956 956 956 956 956 956 956 956 956 956 956 956 956 956 955 955 955 955 955 954 954 954 954 954 954 954 954 954 953 953 953 953 953 953 953 953 953 954 954 953 953 952 952 952 952 952 952 952 952 952 952 952 952 952 952 952 952 952 952 952 952 952 952 952 952 951 951 951 951 951 951 952 952 952 952 952 952 952 952 952 952 952 952 952 952 952 953 953 953 953 952 953 953 953 952 952 953 953 953 952 952 953 953 953 952 953 953 953 954 954 954 954 954 956 955 955 955 955 955 955 955 955 955 955 955 955 955 955 956 955 955 955 955 956 955 955 955 955 954 954 954 954 954 955 955 955 955 955 957 956 956 956 957 956 955 955 955 956 957 956 956 956 957 958 957 957 957 958 958 957 957 957 958 958 957 957 957 958 959 958 958 958 959 959 958 958 958 959 959 958 958 958 958 958 957 957 957 958 958 957 957 957 958 958 958 958 958 959 959 958 958 958 959 960 958 958 960 960 961 960 960 960 962 962 962 961 961 963 963 963 962 962 963 963 963 963 963 964 964 962 962 962 963 963 962 962 962 962 962 962 962 962 962 962 961 961 961 962 962 961 961 961 961 961 960 960 960 961 961 960 960 960 961 961 960 960 960 961 961 960 960 960 961 961 960 960 960 962 962 960 960 960 962 962 961 961 961 962 962 961 961 961 962 962 961 961 961 962 962 960 960 960 961 961 960 960 960 961 960 960 960 960 961 960 959 959 959 960 959 958 958 958 959 958 957 957 957 953 956 956 956 953 954 954 954 954 953 953 953 953 953 953 953 953 952 952 952 952 952 951 951 952 952 952 951 951 952 952 952 951 951 951 951 950 950 949 949 950 950 950 950 951 951 951 951 950 951 951 951 951 950 950 950 950 950 950 951 951 950 950 950 950 950 951 951 950 951 951 951 951 950 951 951 951 951 950 950 950 950 950 950 951 951 950 950 949 950 950 949 949 949 949 949 948 947 947 948 948 947 947 947 947 947 947 946 946 947 947 947 946 946 946 947 946 945 945 945 946 946 945 945 945 946 946 945 945 945 946 946 946 946 946 946 945 945 945 945 945 944 944 944 944 945 944 944 944 945 943 943 943 943 942 943 943 943 942 942 943 943 943 942 943 943 943 942 942 942 942 942 941 941 942 942 941 941 941 941 941 940 939 939 940 940 939 938 938 938 938 938 937 937 938 938 937 937 937 937 937 937 937 936 936 936 936 936 936 936 936 935 935 935 935 935 935 935 935 935 935 934 934 934 934 934 934 934 934 934 934 934 934 934 935 935 935 935 934 935 935 934 934 934 935 934 934 933 932 932 932 932 932 932 932 932 931 931 930 931 931 930 930 930 930 930 929 929 929 929 929 929 929 928 928 928 928 928 927 927 927 927 927
956 956 956 956 956 956 956 956 956 956 956 956 956 956 956 956 956 955 955 955 955 955 955 955 955 955 955 954 954 954 955 955 954 954 954 953 953 953 953 953 953 953 953 953 953 953 952 953 953 953 953 953 953 953 953 952 952 952 952 952 952 952 952 952 952 952 952 952 952 952 952 952 952 952 952 952 952 952 951 951 951 951 951 951 951 951 952 952 952 952 952 952 952 952 952 952 952 952 952 952 952 953 953 952 952 952 953 953 952 952 952 953 953 952 952 953 953 952 952 953 953 953 952 952 953 953 953 953 954 954 954 953 953 954 954 954 953 953 954 954 954 954 954 955 955 955 954 954 954 954 954 953 953 953 953 953 953 953 954 954 954 954 954 954 954 954 953 953 953 953 953 953 953 955 955 955 954 954 955 955 955 954 954 955 955 955 954 954 956 956 956 955 955 956 956 956 955 955 956 956 956 956 956 957 957 957 955 955 956 956 956 955 955 956 956 956 955 955 956 956 956 955 955 956 956 956 956 957 957 957 957 957 957 957 957 960 960 962 961 961 961 961 963 962 962 962 963 963 963 963 963 964 964 962 962 962 963 963 962 962 962 962 962 962 962 962 962 962 961 961 961 962 962 961 961 961 961 961 958 958 958 961 961 958 958 958 961 961 957 957 957 961 961 960 960 960 961 961 960 960 960 962 962 960 960 960 962 962 961 961 961 962 962 961 961 961 962 962 961 961 961 962 962 957 957 957 956 958 958 958 958 956 958 958 958 958 956 956 956 956 956 955 955 956 956 956 954 954 955 955 953 953 954 954 954 953 953 954 954 953 953 953 953 953 953 953 953 953 952 952 952 952 952 951 951 951 952 951 951 951 951 952 951 951 951 951 951 946 947 949 949 950 950 950 950 950 951 951 950 950 950 951 951 950 950 950 950 950 950 950 950 951 950 950 950 950 950 951 950 950 950 951 951 950 950 950 951 951 950 950 950 950 950 950 950 950 951 950 949 949 949 950 949 949 949 949 949 947 947 947 947 948 947 947 947 947 947 946 946 946 946 947 946 946 946 946 947 946 945 945 945 944 944 944 944 944 944 944 945 945 945 943 943 944 944 944 943 943 944 944 944 943 944 944 944 944 943 943 943 943 943 943 943 943 942 942 942 943 943 942 942 943 943 942 942 942 943 943 942 942 942 942 941 941 941 941 942 941 941 941 941 941 939 939 939 939 940 938 938 938 938 938 937 937 937 937 938 937 937 937 937 937 937 936 936 936 936 936 936 936 936 936 935 935 935 935 935 935 935 935 935 935 934 934 934 934 934 934 934 934 934 934 934 934 934 934 935 935 934 934 934 934 934 934 933 933 933 933 933 932 932 932 932 932 932 932 932 931 930 930 930 931 930 930 930 930 930 929 929 929 929 929 929 928 928 928 928 928 927 927 927 927 927 926
955 955 956 956 956 956 956 956 956 956 956 955 955 956 956 956 955 955 955 955 955 955 955 955 955 955 955 954 954 954 954 954 953 953 953 953 953 953 953 953 953 953 953 953 953 953 952 952 953 953 953 953 953 953 952 952 952 952 952 952 952 952 952 952 952 952 952 952 952 952 952 952 952 952 952 952 952 952 951 951 951 951 951 951 951 951 952 952 952 952 952 952 952 952 952 952 952 952 952 952 952 953 953 952 952 952 953 953 952 952 952 953 952 952 952 952 953 952 952 952 953 953 952 952 953 953 953 953 953 954 954 953 953 954 954 954 953 953 954 954 954 954 954 955 955 955 954 954 954 954 954 953 953 953 953 953 953 953 954 954 954 954 954 954 954 954 953 953 953 953 953 953 953 955 955 955 954 954 955 955 955 954 954 955 955 955 954 954 956 956 956 955 955 956 956 956 955 955 956 956 956 956 956 957 957 957 955 955 956 956 956 955 955 956 956 956 955 955 956 956 956 955 955 956 956 956 956 956 957 957 957 957 957 957 957 957 956 957 957 959 959 958 958 960 960 960 959 959 961 961 961 960 960 960 960 960 959 959 960 960 960 959 959 960 960 960 959 958 959 959 959 958 958 959 959 959 958 957 958 958 957 957 957 958 958 957 957 956 957 957 956 956 957 958 958 957 957 957 958 958 958 956 956 957 957 957 956 956 958 958 958 956 956 958 958 958 956 956 958 958 958 956 956 957 957 957 956 956 958 958 958 956 956 958 958 956 956 956 956 956 955 955 955 956 956 954 954 954 955 955 953 953 953 954 954 953 953 953 954 953 953 953 951 951 951 951 953 950 950 950 950 949 950 950 950 950 950 950 950 950 950 949 948 949 949 949 948 946 947 947 947 947 947 949 949 949 948 948 949 949 949 948 948 948 948 948 948 948 948 948 948 947 948 949 949 949 948 948 949 949 949 948 948 949 949 949 948 948 949 949 949 948 948 949 949 949 948 947 948 948 948 948 948 948 948 948 947 946 946 946 946 946 945 945 945 945 945 945 945 945 945 944 944 944 944 944 944 944 944 944 944 944 944 944 944 944 944 944 945 945 945 943 943 944 944 944 943 943 944 944 944 943 943 944 944 943 943 943 943 943 943 943 943 943 942 942 942 943 942 942 942 942 943 942 942 942 943 942 942 942 942 942 941 939 939 939 938 939 939 939 939 937 937 937 937 937 936 936 937 937 937 936 936 936 936 936 936 935 936 936 936 935 936 936 936 936 936 935 935 935 935 935 935 935 935 935 935 934 934 934 934 934 934 934 934 934 934 934 934 934 934 934 933 933 933 933 933 934 933 933 933 932 932 933 933 932 932 933 933 932 932 932 932 930 930 930 930 930 930 930 930 930 929 929 929 929 929 928 928 928 928 928 928 928 928 928 928 927 927 927 927 927 926 926
955 955 956 956 956 956 956 956 956 956 955 955 955 955 956 955 955 955 955 955 955 955 955 955 955 955 955 954 954 954 954 954 953 953 953 953 953 953 953 953 953 953 953 953 953 952 952 952 953 953 953 953 953 953 952 952 952 951 951 951 951 951 951 951 951 951 951 952 952 952 952 952 951 951 951 951 951 950 951 951 951 950 950 951 951 951 950 950 951 951 951 950 950 951 951 951 950 950 951 951 951 950 951 951 951 951 951 951 951 951 951 951 951 951 951 951 951 951 952 952 953 952 952 952 953 953 953 953 953 954 954 953 953 953 954 953 953 953 953 954 954 954 954 954 955 954 954 954 954 954 953 953 953 953 953 953 953 953 953 954 954 954 954 954 954 953 953 953 953 953 953 953 953 953 955 954 954 954 954 955 954 954 954 954 955 954 954 954 954 956 955 955 955 955 956 955 955 955 955 956 956 956 956 956 957 957 955 955 955 956 955 955 955 955 956 955 955 955 955 956 955 955 955 955 956 956 956 956 957 957 957 957 957 957 957 956 956 956 957 957 958 958 959 959 960 959 959 959 959 961 960 960 960 960 960 959 959 959 959 960 959 959 959 959 960 959 959 958 958 959 958 958 958 958 959 958 958 957 957 957 957 957 957 957 957 957 957 956 956 956 956 956 957 957 957 957 957 957 957 956 956 956 956 956 957 957 956 956 956 958 958 956 956 956 958 958 956 956 958 958 958 956 956 957 957 956 956 956 958 958 956 956 956 958 958 956 956 956 956 956 955 955 955 956 956 954 954 954 955 955 953 953 953 954 953 951 951 951 950 951 951 951 951 951 951 951 950 950 950 950 949 949 949 950 950 950 950 949 950 950 949 949 948 948 949 948 948 946 946 947 947 947 947 947 949 948 948 948 948 949 948 948 948 948 948 948 948 948 948 948 947 947 948 948 949 948 948 948 948 949 948 948 948 948 949 948 948 948 948 949 948 948 948 948 949 948 948 947 947 948 948 948 948 948 948 947 947 946 946 946 946 946 945 945 945 945 945 945 945 945 944 944 944 944 944 944 944 944 944 944 944 944 944 944 944 944 944 944 944 945 945 943 943 943 944 943 943 943 943 944 943 943 943 944 944 943 943 943 943 943 943 943 943 943 942 942 942 941 942 942 942 941 940 941 941 941 940 940 940 940 940 939 939 939 939 938 938 938 939 939 937 937 937 937 937 936 936 936 936 937 936 936 936 936 936 936 936 935 935 936 935 935 935 936 936 936 935 935 935 935 935 935 935 935 935 935 935 934 934 934 934 934 934 934 934 934 934 934 934 934 934 933 933 933 933 933 933 933 933 933 933 932 932 933 933 932 932 932 933 932 931 931 930 930 930 930 930 929 930 930 930 929 929 929 929 929 929 928 928 928 928 928 928 928 928 928 928 927 927 927 927 927 927 926
955 955 956 956 955 956 956 956 956 955 955 955 955 955 955 955 955 955 954 954 955 955 955 954 954 955 955 954 954 954 954 954 953 953 953 953 953 953 953 953 953 953 953 953 953 952 952 952 952 952 952 952 952 952 952 952 952 951 951 951 951 951 951 951 951 951 951 951 951 952 952 951 951 951 951 951 951 950 950 951 950 950 950 950 951 950 950 950 950 951 950 950 950 950 951 950 950 950 950 951 950 950 950 950 951 951 951 951 951 951 951 951 951 951 951 951 951 951 951 951 950 951 951 951 951 951 952 952 952 951 952 952 952 952 951 952 952 952 952 952 952 952 952 952 953 954 954 954 954 952 952 952 952 952 952 952 952 952 952 952 953 953 953 953 952 952 952 952 952 951 952 952 952 952 952 953 953 953 953 952 953 953 953 953 952 953 953 953 953 952 953 953 953 953 953 953 953 953 953 953 954 954 954 954 953 953 953 953 953 952 953 953 953 953 952 953 953 953 953 951 952 952 952 952 951 953 953 953 953 953 957 957 957 957 956 956 956 956 957 957 957 958 959 959 958 959 959 959 959 959 960 960 960 960 959 959 959 959 959 958 959 959 959 959 958 959 959 958 958 957 958 958 958 958 957 958 958 957 956 956 957 957 957 956 956 957 957 956 955 955 956 956 957 956 956 957 957 957 956 956 956 956 956 956 956 957 956 956 956 958 958 956 956 954 958 956 956 956 954 958 956 954 954 954 953 954 954 954 954 952 954 954 954 952 952 953 953 953 952 952 953 953 953 951 951 952 952 952 951 951 952 952 952 950 950 951 951 951 950 950 951 951 951 951 950 950 950 950 950 949 949 949 949 949 950 950 950 949 949 949 949 949 948 948 948 948 948 946 946 945 947 947 947 947 947 948 948 948 948 947 948 948 948 948 946 948 948 948 948 947 947 947 948 948 947 948 948 948 948 947 948 948 948 948 947 948 948 948 948 947 948 948 948 948 947 948 948 947 947 947 948 948 948 948 947 947 947 946 946 946 946 946 945 945 945 945 945 945 945 944 944 944 944 944 944 944 944 944 944 944 944 944 944 944 944 944 944 944 944 945 943 943 943 943 942 942 942 942 942 941 941 941 941 941 941 942 942 942 941 941 942 942 942 941 942 942 942 941 941 942 941 941 940 940 941 940 940 940 940 940 939 939 939 939 938 938 938 938 938 937 937 937 937 937 936 936 936 936 936 935 936 936 936 936 935 936 936 935 935 935 935 935 935 935 936 935 935 935 935 935 935 935 935 935 935 935 935 934 934 934 934 934 934 934 934 934 934 934 934 934 933 933 933 933 933 933 933 933 933 933 933 932 932 932 933 932 931 931 931 931 931 931 930 930 930 930 930 929 929 930 929 929 929 929 929 929 929 928 928 928 928 928 928 928 928 928 928 927 927 927 927 927 927 927
954 955 956 955 955 955 956 956 955 955 955 955 955 955 955 955 955 954 954 954 954 955 954 954 954 954 955 954 954 954 954 953 952 952 952 952 953 953 953 952 952 952 952 952 952 952 952 952 952 952 952 952 952 952 952 952 952 951 951 951 951 951 951 951 951 951 951 951 951 951 951 951 951 951 951 951 951 950 950 950 950 950 950 950 950 950 950 950 950 950 950 950 950 950 950 950 950 950 950 950 950 950 950 950 950 951 951 951 951 950 951 951 951 951 950 951 951 951 951 950 950 951 951 951 951 951 952 952 952 951 951 952 952 952 951 951 952 952 952 952 952 952 952 952 953 953 954 954 954 952 952 952 952 952 952 952 952 952 952 952 952 953 953 953 952 952 952 952 951 951 951 952 952 952 952 952 953 953 952 952 952 953 953 952 952 952 953 953 952 952 952 953 953 953 953 953 953 953 953 953 953 954 954 953 953 953 953 953 952 952 952 953 953 952 952 952 953 953 951 951 951 952 952 951 951 953 953 953 953 953 955 955 955 953 954 954 954 954 957 957 957 957 959 958 958 958 959 959 959 959 959 960 960 959 959 959 959 959 958 958 958 959 959 958 958 958 959 958 957 957 957 958 958 957 957 957 958 956 956 956 956 957 957 956 956 956 953 955 955 955 955 956 956 956 956 956 953 956 956 956 956 954 954 954 954 953 954 954 954 953 953 954 954 954 953 953 954 954 954 953 953 954 954 953 953 954 954 954 952 952 952 954 954 952 952 952 953 953 952 952 952 953 953 951 951 951 952 952 951 951 952 952 952 950 950 951 951 950 950 950 950 951 951 950 950 950 950 950 949 949 949 949 949 949 949 950 950 949 948 948 949 949 948 948 948 948 948 946 945 945 945 947 947 947 947 947 948 948 947 947 947 948 948 946 946 946 948 948 947 947 947 947 948 947 947 947 948 948 947 947 947 948 948 947 947 948 948 948 947 947 947 948 948 947 947 947 948 947 947 947 947 948 948 947 947 947 947 946 946 946 946 946 945 945 945 945 945 945 944 944 944 944 944 944 944 944 944 944 943 943 942 943 943 943 942 942 942 942 942 942 942 942 942 942 942 942 942 942 941 941 941 941 941 941 941 942 942 942 941 941 942 942 942 941 941 942 942 941 941 940 941 941 940 940 939 940 940 940 940 939 939 939 939 938 938 938 938 938 937 937 937 937 937 936 936 936 936 936 935 935 935 936 936 935 935 935 936 935 935 935 935 935 935 935 935 935 935 935 935 935 935 935 935 935 935 935 935 934 934 934 934 934 934 934 934 934 934 934 934 933 933 933 933 933 933 933 933 933 933 933 933 932 932 932 932 931 931 931 931 931 931 931 930 930 930 930 930 929 929 929 929 929 929 929 929 929 929 928 928 928 928 928 928 928 928 928 928 927 927 927 927 927 927 927
954 954 953 954 954 954 954 954 954 954 954 953 953 954 954 954 953 953 953 953 953 953 953 953 953 953 953 953 953 953 952 952 952 952 952 952 953 953 953 952 952 952 952 952 952 952 952 952 952 952 952 952 952 952 952 952 952 951 951 951 951 951 951 951 951 951 951 951 951 951 951 951 951 951 951 951 951 950 950 950 950 950 950 950 950 950 950 950 950 950 950 950 950 950 950 950 950 950 950 950 950 950 950 950 950 950 951 951 950 950 950 951 951 950 950 950 951 951 950 950 950 950 951 951 951 951 952 952 951 951 951 952 952 951 951 951 952 952 952 952 952 952 952 953 953 953 954 954 952 952 952 952 952 952 952 952 952 952 952 952 952 953 953 952 952 952 952 952 951 951 951 952 952 952 952 952 953 953 952 952 952 953 953 952 952 952 953 953 952 952 952 953 953 953 953 953 953 953 953 953 953 954 954 953 953 953 953 953 952 952 952 953 953 952 952 952 953 953 951 951 951 952 952 951 951 951 953 953 953 953 955 955 953 953 953 954 954 954 954 956 956 956 955 956 956 956 956 955 957 957 957 955 955 957 957 957 955 955 956 956 956 954 954 956 956 956 954 954 955 955 955 954 954 955 955 955 954 954 954 954 954 954 954 954 954 954 953 953 954 954 954 954 954 955 955 955 953 954 954 954 953 953 954 954 953 953 953 954 954 953 953 954 954 953 953 953 954 954 953 953 953 954 954 953 953 953 954 954 952 952 952 954 954 952 952 952 953 953 952 952 952 953 953 951 951 951 952 951 951 951 951 952 950 950 950 949 951 949 949 949 949 948 948 948 948 950 947 946 947 947 947 946 947 947 947 947 950 947 948 948 948 949 948 948 948 946 946 944 944 944 944 944 944 945 945 945 945 945 945 945 945 944 944 945 945 945 944 944 945 945 945 945 945 946 946 946 944 944 946 946 946 945 945 947 947 947 948 947 947 946 946 945 945 946 946 946 946 946 946 946 946 946 946 946 946 946 946 945 945 945 945 945 944 944 944 944 944 944 944 944 944 943 944 944 944 944 943 943 943 943 942 942 943 943 942 942 942 942 942 942 942 942 942 942 942 942 942 942 941 941 941 941 941 941 941 941 942 942 941 941 942 942 941 941 941 941 942 941 940 940 940 941 940 939 939 939 940 940 939 939 939 939 939 938 938 938 938 937 937 937 936 935 935 935 935 935 935 935 935 935 935 934 934 934 934 935 935 935 935 935 935 935 935 935 935 935 935 935 935 935 935 935 935 935 935 935 935 934 934 934 934 934 934 934 934 934 934 934 933 933 933 933 933 933 933 933 933 933 932 932 932 932 932 932 932 932 931 931 931 931 931 931 930 930 930 930 930 929 929 929 929 929 929 929 929 929 929 928 928 928 928 928 928 928 928 928 928 927 927 927 927 927 927 926
954 953 953 954 954 954 954 954 954 954 954 953 953 954 954 954 953 953 953 953 953 953 953 953 953 953 953 953 953 953 952 952 952 952 952 952 952 953 952 952 952 952 952 952 952 952 952 952 952 952 952 952 952 952 952 952 951 951 951 951 951 951 951 951 951 951 951 951 951 951 951 951 951 951 951 951 951 950 950 950 950 950 950 950 950 950 950 950 950 950 950 950 950 950 950 950 950 950 950 950 950 950 950 950 950 950 950 950 950 950 950 950 950 950 950 949 949 949 949 949 949 949 951 951 951 951 951 952 951 951 951 951 952 951 951 951 951 952 952 952 952 952 952 953 953 953 954 954 952 952 952 952 952 952 952 952 952 952 952 952 952 953 953 952 952 952 952 952 951 951 951 951 952 952 952 952 953 953 952 952 952 953 953 952 952 952 953 953 952 952 952 953 953 953 953 953 953 953 953 953 953 954 954 951 951 951 951 951 951 951 951 953 953 950 950 950 953 950 950 950 950 950 949 949 949 949 953 953 953 951 951 955 953 953 953 954 954 954 954 956 956 955 955 955 956 956 955 955 957 957 957 955 955 957 957 957 955 955 956 956 956 954 954 956 956 956 954 954 955 955 955 954 954 955 955 955 954 954 954 954 954 954 954 954 954 953 953 953 954 954 954 954 954 955 955 953 953 953 954 954 953 953 953 954 953 953 953 954 951 951 953 953 954 953 953 953 953 954 953 953 951 954 950 951 951 951 950 949 950 950 950 949 949 950 950 950 949 949 950 950 950 948 949 949 949 949 949 949 949 949 949 948 948 949 949 948 948 948 949 949 948 948 947 948 948 947 947 946 947 947 946 946 946 947 947 946 946 946 947 947 947 946 945 946 946 946 944 944 944 944 944 944 944 945 945 945 945 945 945 945 945 944 944 945 945 945 944 944 945 945 945 945 945 946 946 946 944 944 946 946 946 945 945 945 945 945 945 945 946 946 946 945 945 945 946 946 946 946 946 946 946 946 946 946 946 946 946 945 945 945 945 945 944 944 944 944 944 944 944 944 944 943 943 944 944 943 943 943 943 942 942 942 943 942 942 942 942 942 942 942 942 942 942 942 942 942 942 942 941 941 941 941 941 941 941 941 942 941 941 941 941 942 940 940 940 940 939 939 939 939 939 938 938 938 938 938 937 937 937 937 937 937 937 937 937 937 936 936 936 936 936 935 935 935 935 935 935 935 935 935 934 934 934 934 934 934 934 934 934 934 934 934 935 935 935 935 934 935 935 935 935 935 935 935 935 935 935 934 934 934 934 934 934 934 934 934 934 934 934 934 934 934 933 933 933 933 933 932 932 932 932 932 932 932 932 932 932 931 931 931 931 931 930 930 930 930 930 929 929 929 929 929 929 929 929 929 929 928 928 928 928 928 927 927 927 927 927 927 927 927 927 927 926 926
